ply
format ascii 1.0
comment StandardCyborgFusionVersion 1.7.0
comment StandardCyborgFusionMetadata { "color_space": "sRGB" }
element vertex 725
property float x
property float y
property float z
property float nx
property float ny
property float nz
property uchar red
property uchar green
property uchar blue
property float surfel_radius
element face 0
property list uchar int vertex_indices
end_header
-0.0327 -0.2037 0.4791 -0.6652 0.7273 -0.1690 32 34 38 0.001069
-0.0395 -0.2111 0.4502 -0.6976 0.7149 -0.0475 29 33 37 0.001174
-0.0864 0.0352 0.3060 -0.3275 0.1670 -0.9300 207 158 125 0.000675
-0.0806 -0.0674 0.3082 -0.6123 -0.0155 -0.7905 198 141 115 0.000659
-0.0819 -0.0318 0.3060 -0.7265 0.0986 -0.6800 213 164 136 0.000639
-0.0823 -0.0359 0.3056 -0.7368 0.0689 -0.6726 217 165 135 0.000638
-0.0819 -0.0365 0.3051 -0.7172 0.0519 -0.6949 208 157 127 0.000636
-0.0287 -0.2009 0.4725 -0.7548 0.6435 -0.1275 33 36 40 0.001122
-0.0797 -0.0346 0.3033 -0.6390 0.1023 -0.7624 207 156 126 0.000650
-0.0316 -0.2030 0.4525 -0.7554 0.6500 -0.0822 28 32 35 0.001024
-0.0382 -0.2074 0.4234 -0.8677 0.4702 -0.1613 33 36 42 0.001156
-0.0303 -0.2020 0.4498 -0.7193 0.6809 -0.1380 32 36 40 0.001114
-0.0316 -0.2032 0.4467 -0.7427 0.6588 -0.1200 37 41 45 0.001081
-0.0442 -0.2122 0.3966 -0.7671 0.6288 -0.1271 45 50 57 0.001179
-0.0434 -0.2112 0.3955 -0.8234 0.5649 -0.0546 44 49 56 0.001240
-0.0297 -0.2016 0.4463 -0.7180 0.6880 -0.1056 35 39 44 0.001174
-0.0737 -0.0635 0.3036 -0.3756 -0.1691 -0.9112 191 135 109 0.000716
-0.0774 0.0132 0.2998 -0.2123 0.1767 -0.9611 195 146 115 0.000674
-0.0299 -0.1984 0.4285 -0.7731 0.6011 -0.2023 37 42 48 0.000960
-0.0305 -0.1992 0.4265 -0.7590 0.4935 -0.4247 38 43 49 0.000968
-0.0318 -0.1992 0.4182 -0.8897 0.4417 -0.1152 42 43 46 0.001024
-0.0335 -0.2009 0.4149 -0.8258 0.5287 -0.1964 46 50 54 0.000956
-0.0318 -0.1984 0.4142 -0.9299 0.3068 -0.2028 48 35 31 0.001018
-0.0324 -0.1998 0.4134 -0.8755 0.4189 -0.2411 43 35 35 0.000936
-0.0376 -0.2040 0.3793 -0.7080 0.6190 -0.3399 39 42 46 0.000909
-0.0417 -0.1610 0.3725 -0.9466 -0.2382 -0.2172 176 135 111 0.000877
-0.0421 -0.1519 0.3646 -0.8887 -0.2879 -0.3567 188 147 123 0.001092
-0.0409 -0.1542 0.3634 -0.9051 -0.2569 -0.3388 194 153 128 0.001088
-0.0418 -0.1438 0.3571 -0.8705 -0.2741 -0.4087 200 159 134 0.001134
-0.0408 -0.1463 0.3567 -0.8702 -0.2842 -0.4025 211 169 143 0.001077
-0.0391 -0.1579 0.3610 -0.9047 -0.2511 -0.3443 207 164 138 0.001044
-0.0331 -0.1898 0.3707 -0.9060 -0.2016 -0.3723 215 170 144 0.001052
-0.0380 -0.1610 0.3603 -0.9099 -0.2468 -0.3334 203 159 134 0.000879
-0.0364 -0.1603 0.3562 -0.8842 -0.2327 -0.4050 213 169 142 0.000906
-0.0332 -0.1780 0.3611 -0.8889 -0.2809 -0.3618 203 161 136 0.001103
-0.0385 -0.1407 0.3487 -0.8302 -0.2508 -0.4980 194 153 128 0.000974
-0.0320 -0.1786 0.3587 -0.8671 -0.3023 -0.3959 196 155 130 0.001053
-0.0263 -0.1987 0.3633 -0.8909 0.1020 -0.4425 177 143 122 0.000962
-0.0271 -0.1858 0.3549 -0.8536 -0.3292 -0.4036 188 147 123 0.001104
-0.0238 -0.1951 0.3560 -0.9327 -0.1387 -0.3330 185 148 124 0.001023
-0.0315 -0.1377 0.3392 -0.6843 -0.2286 -0.6924 181 140 114 0.000875
-0.0234 -0.1706 0.3388 -0.7911 -0.1554 -0.5916 205 160 134 0.000860
-0.0219 -0.1878 0.3416 -0.9263 -0.1196 -0.3574 225 180 151 0.000941
-0.0128 -0.1729 0.3295 -0.6268 -0.0562 -0.7772 189 146 120 0.000849
-0.0063 -0.1815 0.3242 -0.7829 0.2075 -0.5865 171 133 109 0.000785
-0.0054 -0.1815 0.3232 -0.7435 0.2809 -0.6069 175 138 115 0.000784
-0.0031 -0.1804 0.3210 -0.7449 0.3238 -0.5834 179 143 120 0.000779
-0.0015 -0.1796 0.3197 -0.7371 0.3325 -0.5884 186 150 128 0.000777
0.0003 -0.1784 0.3175 -0.7665 0.3542 -0.5358 150 123 108 0.000777
0.0009 -0.1783 0.3168 -0.7242 0.3823 -0.5739 130 107 98 0.000779
0.0019 -0.1775 0.3157 -0.7184 0.3838 -0.5802 125 103 94 0.000775
0.0050 -0.1763 0.3127 -0.6241 0.4030 -0.6694 46 42 45 0.000768
0.0063 -0.1763 0.3118 -0.6123 0.3544 -0.7067 24 25 29 0.000771
0.0072 -0.1755 0.3113 -0.5654 0.3866 -0.7286 28 27 32 0.000765
0.0090 -0.1754 0.3103 -0.5087 0.3405 -0.7907 23 24 28 0.000773
0.0105 -0.1763 0.3095 -0.4159 0.2576 -0.8722 17 18 22 0.000793
0.0128 -0.1753 0.3087 -0.3590 0.2804 -0.8902 16 16 20 0.000791
0.0144 -0.1753 0.3082 -0.3460 0.2856 -0.8937 17 19 22 0.000792
0.0156 -0.1752 0.3080 -0.3235 0.2618 -0.9093 17 18 22 0.000792
0.0161 -0.1757 0.3077 -0.3473 0.2745 -0.8967 21 22 25 0.000793
0.0174 -0.1757 0.3072 -0.3186 0.2679 -0.9092 21 22 25 0.000794
0.0188 -0.1750 0.3068 -0.2907 0.2865 -0.9129 21 22 26 0.000794
0.0198 -0.1758 0.3063 -0.2856 0.2966 -0.9113 24 25 27 0.000793
0.0209 -0.1756 0.3062 -0.3151 0.3384 -0.8867 25 26 30 0.000791
0.0220 -0.1753 0.3058 -0.2943 0.3411 -0.8928 24 25 28 0.000791
0.0235 -0.1756 0.3054 -0.2753 0.3821 -0.8821 26 27 31 0.000790
0.0243 -0.1754 0.3053 -0.2767 0.3616 -0.8903 23 24 28 0.000789
0.0258 -0.1759 0.3047 -0.3165 0.4525 -0.8337 18 18 21 0.000784
0.0266 -0.1758 0.3045 -0.3241 0.4647 -0.8240 16 16 20 0.000773
0.0279 -0.1757 0.3040 -0.3652 0.5085 -0.7798 11 13 16 0.000771
0.0291 -0.1752 0.3038 -0.4220 0.5041 -0.7535 17 17 21 0.000768
0.0299 -0.1755 0.3033 -0.4120 0.5472 -0.7285 19 20 24 0.000765
0.0311 -0.1750 0.3030 -0.4882 0.5509 -0.6769 18 18 23 0.000765
0.0324 -0.1747 0.3021 -0.5218 0.5884 -0.6177 16 16 19 0.000774
0.0336 -0.1743 0.3014 -0.5478 0.6032 -0.5797 19 21 22 0.000777
0.0347 -0.1742 0.3003 -0.5773 0.6349 -0.5135 23 25 27 0.000780
0.0357 -0.1739 0.2992 -0.5786 0.6521 -0.4899 17 18 20 0.000792
0.0377 -0.1701 0.3017 -0.5257 0.5999 -0.6031 9 8 11 0.000784
0.0367 -0.1738 0.2983 -0.6101 0.6852 -0.3977 16 17 20 0.000795
0.0378 -0.1733 0.2975 -0.6264 0.6693 -0.3996 18 18 22 0.000790
0.0382 -0.1731 0.2969 -0.5869 0.6961 -0.4134 17 18 22 0.000790
0.0393 -0.1725 0.2962 -0.5859 0.7145 -0.3824 21 21 24 0.000791
0.0403 -0.1723 0.2952 -0.5674 0.7085 -0.4196 18 17 21 0.000794
0.0415 -0.1720 0.2941 -0.5264 0.7092 -0.4689 17 17 21 0.000803
0.0423 -0.1721 0.2929 -0.4969 0.6966 -0.5174 23 23 26 0.000811
0.0436 -0.1719 0.2922 -0.4640 0.7018 -0.5405 19 19 23 0.000802
0.0449 -0.1713 0.2921 -0.4407 0.6768 -0.5896 23 23 26 0.000805
0.0456 -0.1715 0.2914 -0.4257 0.6857 -0.5904 21 21 25 0.000798
0.0465 -0.1715 0.2908 -0.4308 0.6706 -0.6039 29 29 32 0.000794
0.0478 -0.1711 0.2904 -0.4622 0.6712 -0.5795 41 42 43 0.000815
0.0483 -0.1712 0.2899 -0.4358 0.6744 -0.5960 39 41 43 0.000799
0.0491 -0.1712 0.2898 -0.3828 0.6622 -0.6441 33 35 38 0.000799
0.0505 -0.1707 0.2891 -0.4596 0.6801 -0.5712 24 24 26 0.000794
0.0513 -0.1706 0.2890 -0.3938 0.6845 -0.6134 28 30 33 0.000792
0.0522 -0.1704 0.2883 -0.4582 0.6950 -0.5541 29 29 32 0.000788
0.0533 -0.1703 0.2879 -0.4431 0.6992 -0.5611 28 29 32 0.000789
0.0547 -0.1699 0.2880 -0.4638 0.6937 -0.5511 33 37 38 0.000786
0.0545 -0.1704 0.2868 -0.4538 0.7204 -0.5245 33 35 37 0.000789
0.0553 -0.1708 0.2859 -0.4360 0.7359 -0.5180 34 36 38 0.000818
0.0562 -0.1702 0.2854 -0.4872 0.7137 -0.5032 32 33 35 0.000786
0.0576 -0.1700 0.2843 -0.5035 0.7113 -0.4904 23 24 26 0.000788
0.0590 -0.1694 0.2836 -0.5392 0.7106 -0.4520 21 20 23 0.000772
0.0600 -0.1694 0.2828 -0.5265 0.7279 -0.4394 27 28 30 0.000799
0.0612 -0.1690 0.2821 -0.5197 0.7269 -0.4488 29 29 31 0.000780
0.0624 -0.1688 0.2811 -0.5160 0.7281 -0.4513 21 20 23 0.000796
0.0642 -0.1682 0.2801 -0.5026 0.7407 -0.4458 20 19 22 0.000807
0.0656 -0.1681 0.2790 -0.4816 0.7599 -0.4365 26 26 29 0.000839
0.0674 -0.1677 0.2779 -0.4486 0.7685 -0.4563 30 30 33 0.000831
0.0735 -0.1625 0.2843 -0.3182 0.7395 -0.5932 33 33 35 0.000808
0.0690 -0.1677 0.2766 -0.4310 0.7759 -0.4607 28 27 30 0.000837
0.0704 -0.1675 0.2759 -0.3350 0.8190 -0.4659 27 26 29 0.000841
0.0714 -0.1676 0.2752 -0.3163 0.8158 -0.4842 24 23 26 0.000850
0.0721 -0.1673 0.2755 -0.2780 0.7791 -0.5618 28 28 31 0.000869
0.0731 -0.1675 0.2745 -0.3026 0.8384 -0.4534 26 25 27 0.000866
0.0750 -0.1673 0.2744 -0.3050 0.8050 -0.5089 34 34 36 0.000863
0.0766 -0.1672 0.2740 -0.2638 0.8171 -0.5126 33 32 34 0.000861
0.0786 -0.1673 0.2728 -0.3276 0.7729 -0.5434 30 30 31 0.000834
0.0813 -0.1669 0.2719 -0.2377 0.8067 -0.5410 24 24 26 0.000820
0.0824 -0.1673 0.2712 -0.2969 0.8282 -0.4753 27 27 29 0.000821
0.0837 -0.1669 0.2714 -0.1775 0.8557 -0.4861 27 26 28 0.000826
0.0852 -0.1670 0.2708 -0.2668 0.8351 -0.4810 29 29 30 0.000835
0.0862 -0.1670 0.2702 -0.3110 0.8561 -0.4128 34 32 34 0.000834
-0.1002 -0.2537 0.5517 -0.8560 0.2356 -0.4601 70 75 83 0.001338
-0.1004 -0.2505 0.5412 -0.7723 0.3085 -0.5553 71 77 84 0.001198
-0.1012 -0.2524 0.5410 -0.7695 0.3091 -0.5589 72 78 85 0.001328
-0.1317 0.0263 0.3573 -0.9644 -0.0787 -0.2524 231 181 152 0.000554
-0.1319 0.0245 0.3590 -0.9669 -0.1177 -0.2263 229 179 150 0.000553
-0.1314 0.0234 0.3578 -0.9602 -0.1399 -0.2417 222 166 143 0.000552
-0.1299 -0.0033 0.3689 -0.9593 0.0502 -0.2780 208 164 139 0.000557
-0.1317 0.0352 0.3577 -0.9728 0.0855 -0.2152 235 182 150 0.000568
-0.1319 0.0321 0.3580 -0.9731 0.0417 -0.2267 240 189 158 0.000565
-0.1312 0.0239 0.3565 -0.9536 -0.1346 -0.2692 238 153 153 0.000552
-0.1306 0.0219 0.3561 -0.9457 -0.1818 -0.2696 234 171 157 0.000556
-0.1311 0.0383 0.3566 -0.9687 0.1365 -0.2071 236 184 151 0.000591
-0.1308 0.0368 0.3544 -0.9603 0.0998 -0.2604 232 181 149 0.000574
-0.1311 0.0346 0.3550 -0.9654 0.0708 -0.2510 239 191 161 0.000598
-0.1314 0.0328 0.3557 -0.9644 0.0384 -0.2618 230 180 150 0.000566
-0.1301 0.0190 0.3568 -0.9283 -0.2396 -0.2844 216 168 140 0.000555
-0.1305 0.0327 0.3527 -0.9561 0.0095 -0.2930 229 179 149 0.000564
-0.1248 -0.0180 0.3640 -0.8358 -0.3650 -0.4101 142 99 73 0.000610
-0.1274 0.0132 0.3533 -0.8939 -0.2856 -0.3455 253 94 168 0.000564
-0.1283 0.0428 0.3490 -0.9236 0.2113 -0.3198 232 179 146 0.000611
-0.1280 0.0263 0.3466 -0.9137 -0.1337 -0.3837 238 188 165 0.000563
-0.1254 -0.0642 0.3349 -0.3613 -0.3095 -0.8796 142 91 63 0.000681
-0.1272 0.0487 0.3518 -0.8943 0.3547 -0.2727 230 176 141 0.000663
-0.1264 0.0514 0.3530 -0.8771 0.4038 -0.2600 235 181 145 0.000699
-0.1247 0.0164 0.3444 -0.8622 -0.2458 -0.4430 251 93 167 0.000565
-0.1223 -0.0075 0.3505 -0.8910 -0.1840 -0.4150 206 158 129 0.000570
-0.0844 -0.2317 0.5481 -0.7057 0.5663 -0.4257 49 52 56 0.001167
-0.1225 0.0200 0.3385 -0.8612 -0.2196 -0.4584 216 169 140 0.000569
-0.1199 -0.0099 0.3467 -0.8874 -0.2627 -0.3788 198 152 124 0.000587
-0.1154 -0.1010 0.3414 -0.9384 -0.0962 -0.3319 193 131 108 0.000610
-0.0846 -0.2371 0.5158 -0.6595 0.6435 -0.3885 47 52 57 0.001090
-0.1173 -0.0796 0.3326 -0.7550 0.2450 -0.6082 219 159 123 0.000572
-0.1173 -0.0810 0.3324 -0.7533 0.0278 -0.6570 215 155 122 0.000600
-0.0800 -0.2287 0.5447 -0.7963 0.4641 -0.3878 46 50 53 0.001185
-0.1191 0.0023 0.3392 -0.9134 -0.1048 -0.3933 222 177 148 0.000569
-0.1182 -0.0128 0.3452 -0.8567 -0.3613 -0.3681 193 145 116 0.000601
-0.1205 0.0301 0.3324 -0.8223 -0.0421 -0.5674 222 175 146 0.000586
-0.1193 0.0166 0.3342 -0.8424 -0.2073 -0.4973 206 160 131 0.000571
-0.0805 -0.2335 0.5147 -0.6510 0.6481 -0.3953 34 39 43 0.001127
-0.1203 0.0426 0.3337 -0.8002 0.1993 -0.5657 227 176 144 0.000626
-0.1198 0.0379 0.3317 -0.7901 0.1042 -0.6040 221 171 139 0.000595
-0.1150 -0.0302 0.3432 -0.5714 0.5202 -0.6347 210 153 117 0.000683
-0.0805 -0.2364 0.5030 -0.5758 0.7596 -0.3024 46 51 54 0.001075
-0.0698 -0.2256 0.5494 -0.7582 0.4052 -0.5108 44 46 49 0.001182
-0.0724 -0.2261 0.5483 -0.6233 0.5474 -0.5585 42 45 48 0.001106
-0.1143 0.0669 0.3541 -0.7769 0.5253 -0.3471 202 156 123 0.000741
-0.1167 0.0141 0.3310 -0.8432 -0.1594 -0.5134 207 160 131 0.000575
-0.1118 -0.0847 0.3302 -0.5327 -0.4659 -0.7065 149 80 65 0.000811
-0.0686 -0.2241 0.5474 -0.7578 0.4879 -0.4332 50 52 54 0.001036
-0.0751 -0.2278 0.5175 -0.6442 0.6605 -0.3857 34 38 42 0.001100
-0.0786 -0.2386 0.4931 -0.5684 0.7535 -0.3304 34 38 43 0.001139
-0.1168 0.0553 0.3368 -0.6981 0.5247 -0.4871 219 168 133 0.000841
-0.1170 0.0532 0.3349 -0.7160 0.4644 -0.5213 220 168 133 0.000768
-0.1128 -0.0485 0.3326 -0.0843 0.4664 -0.8806 170 119 87 0.000705
-0.1167 0.0464 0.3302 -0.7348 0.2702 -0.6222 223 171 137 0.000670
-0.1169 0.0438 0.3295 -0.7488 0.2037 -0.6307 221 169 136 0.000638
-0.1164 0.0378 0.3276 -0.7540 0.1038 -0.6487 221 172 142 0.000611
-0.1103 -0.0688 0.3338 -0.5057 0.2490 -0.8260 187 135 105 0.000645
-0.1097 -0.0862 0.3298 -0.5999 -0.4769 -0.6424 153 85 70 0.000841
-0.1066 -0.1214 0.3443 -0.9164 -0.2414 -0.3192 200 147 115 0.000647
-0.1154 0.0366 0.3262 -0.7407 0.0868 -0.6662 221 172 141 0.000617
-0.1057 -0.1207 0.3414 -0.9212 -0.2055 -0.3303 201 149 116 0.000657
-0.1055 -0.1234 0.3434 -0.8722 -0.3612 -0.3298 179 131 101 0.000750
-0.1150 0.0461 0.3282 -0.7014 0.2695 -0.6599 221 170 136 0.000673
-0.1142 0.0261 0.3247 -0.7548 -0.0570 -0.6534 217 171 142 0.000601
-0.1070 -0.0922 0.3291 -0.6492 0.1469 -0.7463 202 136 113 0.000625
-0.1049 -0.1220 0.3404 -0.8912 -0.3136 -0.3276 185 134 103 0.000711
-0.1043 -0.1235 0.3402 -0.8732 -0.3721 -0.3146 178 130 100 0.000774
-0.0712 -0.2301 0.5003 -0.6611 0.7007 -0.2685 31 36 41 0.001129
-0.0718 -0.2318 0.4968 -0.6598 0.7028 -0.2660 32 37 42 0.001085
-0.1079 -0.0769 0.3275 -0.5096 0.4230 -0.7493 194 139 108 0.000637
-0.1043 -0.1205 0.3372 -0.9080 -0.1699 -0.3830 203 151 118 0.000672
-0.1035 -0.1227 0.3372 -0.8778 -0.3168 -0.3594 184 134 103 0.000726
-0.1032 -0.1256 0.3409 -0.8615 -0.3914 -0.3235 158 115 88 0.000755
-0.1115 0.0599 0.3353 -0.6180 0.5950 -0.5139 213 163 128 0.000829
-0.1025 -0.1243 0.3367 -0.8704 -0.3405 -0.3556 170 123 95 0.000694
-0.1022 -0.1259 0.3391 -0.8701 -0.3759 -0.3188 157 113 87 0.000743
-0.0691 -0.2299 0.4942 -0.6823 0.6874 -0.2489 35 40 45 0.001190
-0.1105 0.0051 0.3220 -0.8580 0.0274 -0.5129 212 168 141 0.000580
-0.1060 -0.0781 0.3257 -0.5291 0.3676 -0.7648 198 143 112 0.000637
-0.1048 -0.0963 0.3264 -0.5849 -0.0781 -0.8073 190 126 103 0.000678
-0.1047 -0.0872 0.3255 -0.6236 -0.4183 -0.6604 157 88 72 0.000776
-0.0698 -0.2379 0.4676 -0.7368 0.5987 -0.3141 56 62 68 0.001138
-0.1102 0.0370 0.3212 -0.6613 0.1294 -0.7388 219 171 140 0.000638
-0.1106 0.0346 0.3213 -0.6777 0.0945 -0.7292 221 173 142 0.000624
-0.0999 -0.1113 0.3321 -0.8422 0.1201 -0.5255 211 158 129 0.000606
-0.0664 -0.2325 0.4731 -0.6824 0.7101 -0.1736 34 39 45 0.001225
-0.1021 -0.0764 0.3236 -0.5662 0.3678 -0.7377 202 148 118 0.000641
-0.1072 0.0419 0.3197 -0.6265 0.2279 -0.7454 214 164 131 0.000661
-0.1013 -0.0197 0.3379 -0.3744 -0.4461 -0.8129 131 84 61 0.000705
-0.1051 0.0660 0.3363 -0.5950 0.6006 -0.5341 201 155 122 0.000793
-0.0514 -0.2151 0.5240 -0.7068 0.4846 -0.5154 39 42 45 0.001078
-0.0533 -0.2161 0.5229 -0.6736 0.5908 -0.4441 41 44 47 0.001121
-0.1054 0.0217 0.3158 -0.6740 0.0292 -0.7382 214 167 138 0.000620
-0.0962 -0.1165 0.3267 -0.6520 0.0702 -0.7550 197 144 112 0.000665
-0.1049 0.0474 0.3200 -0.5616 0.3403 -0.7542 215 164 130 0.000715
-0.1049 0.0254 0.3155 -0.6456 0.0237 -0.7633 215 168 138 0.000626
-0.1043 0.0003 0.3119 -0.8028 0.1242 -0.5832 119 91 83 0.000600
-0.1028 -0.0121 0.3148 -0.6908 -0.5769 -0.4358 155 112 84 0.000716
-0.0962 -0.1067 0.3266 -0.7391 -0.3064 -0.5999 198 144 115 0.000755
-0.0487 -0.2141 0.5210 -0.5262 0.7448 -0.4104 39 41 44 0.001086
-0.0968 -0.0429 0.3312 -0.7938 0.2637 -0.5480 199 151 121 0.000622
-0.0971 -0.0643 0.3264 -0.6848 0.3335 -0.6480 196 143 115 0.000638
-0.0975 -0.0819 0.3182 -0.6174 0.1387 -0.7744 195 138 111 0.000638
-0.1028 0.0560 0.3233 -0.5070 0.5192 -0.6880 209 159 125 0.000863
-0.1019 -0.0114 0.3124 -0.6994 -0.5314 -0.4781 167 123 94 0.000697
-0.0512 -0.2168 0.4967 -0.6772 0.6500 -0.3448 31 34 39 0.001036
-0.1021 0.0248 0.3132 -0.6050 0.0362 -0.7954 214 166 136 0.000630
-0.0952 -0.0431 0.3284 -0.8551 0.2297 -0.4649 204 155 125 0.000613
-0.1001 0.0647 0.3299 -0.4513 0.6219 -0.6400 200 154 121 0.000957
-0.0996 0.0628 0.3274 -0.4647 0.6328 -0.6194 200 152 119 0.000983
-0.1014 0.0530 0.3204 -0.4951 0.4259 -0.7573 211 160 126 0.000801
-0.1017 0.0370 0.3145 -0.5739 0.1421 -0.8065 214 164 132 0.000653
-0.0945 -0.0688 0.3210 -0.6973 0.3118 -0.6454 204 151 122 0.000627
-0.0986 0.0600 0.3236 -0.4698 0.6002 -0.6473 203 155 121 0.000954
-0.0993 0.0001 0.3060 -0.6727 0.1689 -0.7204 114 87 78 0.000623
-0.0926 -0.0245 0.3310 -0.9313 -0.2232 -0.2880 154 107 85 0.000623
-0.0922 -0.0254 0.3302 -0.9598 -0.1597 -0.2306 157 111 88 0.000616
-0.0921 -0.0322 0.3290 -0.9644 0.0760 -0.2535 197 149 123 0.000606
-0.0930 -0.0900 0.3143 -0.6703 -0.1280 -0.7310 195 136 108 0.000671
-0.0921 -0.0267 0.3290 -0.9796 -0.0497 -0.1945 173 125 98 0.000607
-0.0570 -0.2277 0.4314 -0.8118 0.5214 -0.2627 51 57 63 0.001123
-0.0980 0.0413 0.3131 -0.4794 0.2543 -0.8400 212 162 129 0.000688
-0.0980 0.0380 0.3122 -0.4963 0.1948 -0.8460 211 160 128 0.000668
-0.0977 0.0029 0.3055 -0.5974 0.2692 -0.7554 108 76 65 0.000640
-0.0898 -0.0601 0.3179 -0.8168 0.0251 -0.5764 205 151 124 0.000630
-0.0901 -0.0345 0.3210 -0.9484 -0.0252 -0.3162 206 158 132 0.000608
-0.0886 -0.0520 0.3159 -0.8246 -0.0586 -0.5627 202 149 121 0.000632
-0.0888 -0.0575 0.3164 -0.7988 -0.0109 -0.6015 203 149 122 0.000632
-0.0454 -0.2167 0.4485 -0.7281 0.6683 -0.1525 31 35 40 0.001105
-0.0509 -0.2223 0.4315 -0.6873 0.7170 -0.1164 53 59 65 0.001099
-0.0882 -0.0383 0.3148 -0.9058 0.0939 -0.4131 217 167 137 0.000606
-0.0875 -0.0486 0.3136 -0.8312 -0.0656 -0.5521 201 148 120 0.000629
-0.0867 -0.0791 0.3109 -0.5183 0.0962 -0.8498 203 148 119 0.000651
-0.0881 0.0710 0.3302 -0.4122 0.6013 -0.6845 188 145 114 0.000993
-0.0914 0.0314 0.3073 -0.4197 0.1371 -0.8973 207 158 126 0.000658
-0.0916 0.0005 0.3008 -0.4644 0.2483 -0.8501 103 72 61 0.000658
-0.0860 -0.0384 0.3105 -0.8513 0.0554 -0.5218 217 166 136 0.000618
-0.0889 0.0575 0.3166 -0.3509 0.5373 -0.7669 196 148 115 0.000900
-0.0899 0.0282 0.3063 -0.4015 0.0929 -0.9111 199 151 119 0.000658
-0.0433 -0.2140 0.4273 -0.7696 0.6183 -0.1595 34 39 45 0.001072
-0.0484 -0.2178 0.4089 -0.8106 0.5777 -0.0962 59 64 71 0.001253
-0.0470 -0.2158 0.4071 -0.8095 0.5822 -0.0754 55 61 66 0.001288
-0.0828 -0.0338 0.3067 -0.7695 0.1047 -0.6300 227 176 147 0.000641
-0.0268 -0.1984 0.4718 -0.7592 0.6493 -0.0453 38 41 45 0.001152
-0.0329 -0.2045 0.4487 -0.7620 0.6388 -0.1063 39 43 48 0.001119
-0.0261 -0.1985 0.4734 -0.7333 0.6399 -0.2299 38 41 45 0.001177
-0.0822 -0.0159 0.3005 -0.3290 -0.5452 -0.7710 127 83 61 0.000757
-0.0242 -0.1959 0.4732 -0.7134 0.6983 -0.0575 36 38 42 0.001086
-0.0255 -0.1967 0.4701 -0.7185 0.6913 -0.0761 38 41 45 0.001101
-0.0317 -0.2036 0.4447 -0.7451 0.6426 -0.1784 42 46 51 0.001099
-0.0242 -0.1956 0.4676 -0.7287 0.6760 -0.1096 43 46 50 0.001024
-0.0252 -0.1971 0.4532 -0.7460 0.6607 -0.0834 30 34 39 0.001060
-0.0287 -0.2005 0.4500 -0.7451 0.6610 -0.0888 32 35 39 0.001096
-0.0300 -0.2016 0.4443 -0.7583 0.6440 -0.1008 32 35 40 0.001106
-0.0307 -0.2035 0.4428 -0.7367 0.6015 -0.3089 51 54 59 0.001057
-0.0406 -0.2078 0.4061 -0.7966 0.5975 -0.0915 42 48 54 0.001021
-0.0246 -0.1966 0.4595 -0.7135 0.6668 -0.2152 38 41 45 0.001009
-0.0248 -0.1965 0.4567 -0.7364 0.6621 -0.1389 34 37 41 0.000994
-0.0262 -0.1980 0.4559 -0.7203 0.6851 -0.1081 32 35 40 0.000984
-0.0274 -0.1990 0.4525 -0.7594 0.6411 -0.1110 28 31 35 0.001000
-0.0266 -0.1986 0.4504 -0.7679 0.6317 -0.1064 32 35 39 0.001061
-0.0273 -0.1993 0.4484 -0.7688 0.6307 -0.1054 34 37 41 0.001131
-0.0286 -0.2005 0.4432 -0.7412 0.6602 -0.1214 26 29 34 0.001108
-0.0423 -0.2091 0.3957 -0.8404 0.5366 -0.0769 44 50 56 0.001105
-0.0780 -0.0231 0.3025 -0.5159 -0.1852 -0.8364 166 119 95 0.000660
-0.0230 -0.1946 0.4576 -0.7379 0.6638 -0.1218 36 39 43 0.000966
-0.0257 -0.1975 0.4485 -0.7829 0.6166 -0.0830 30 32 37 0.001114
-0.0277 -0.1992 0.4456 -0.7592 0.6508 -0.0112 28 31 35 0.001152
-0.0283 -0.2004 0.4468 -0.6890 0.7225 -0.0578 38 42 46 0.001191
-0.0319 -0.2009 0.4267 -0.7867 0.4487 -0.4239 34 39 45 0.000965
-0.0752 -0.0599 0.3037 -0.4918 -0.1391 -0.8595 179 126 101 0.000698
-0.0266 -0.1981 0.4441 -0.7522 0.6547 -0.0741 31 35 40 0.001126
-0.0258 -0.1980 0.4464 -0.7694 0.6026 -0.2120 19 21 26 0.001079
-0.0418 -0.2074 0.3885 -0.8677 0.4845 -0.1109 41 47 54 0.001096
-0.0421 -0.2085 0.3868 -0.8971 0.4174 -0.1447 35 42 50 0.001163
-0.0750 -0.0507 0.3017 -0.5125 -0.1695 -0.8418 183 130 103 0.000693
-0.0255 -0.1967 0.4424 -0.7921 0.5914 -0.1512 34 38 43 0.001039
-0.0412 -0.2068 0.3818 -0.8232 0.5649 -0.0569 35 42 49 0.001099
-0.0684 -0.0609 0.3011 -0.2904 -0.2151 -0.9324 171 117 92 0.000736
-0.0429 -0.1493 0.3643 -0.8985 -0.2923 -0.3275 189 148 125 0.001160
-0.0374 -0.1771 0.3732 -0.9302 -0.2384 -0.2791 196 153 128 0.001009
-0.0403 -0.1509 0.3593 -0.8878 -0.2814 -0.3642 213 170 144 0.001076
-0.0337 -0.1964 0.3733 -0.9078 -0.0196 -0.4191 232 188 159 0.000971
-0.0385 -0.1490 0.3537 -0.8638 -0.2670 -0.4273 214 170 144 0.001010
-0.0311 -0.1667 0.3488 -0.8603 -0.2378 -0.4510 190 147 122 0.000916
-0.0263 -0.1883 0.3556 -0.8551 -0.3309 -0.3990 184 144 120 0.001136
-0.0256 -0.1903 0.3562 -0.8642 -0.3100 -0.3964 181 142 118 0.001065
-0.0245 -0.1888 0.3522 -0.8974 -0.2996 -0.3240 176 137 113 0.001141
-0.0295 -0.1377 0.3371 -0.6567 -0.1825 -0.7317 178 136 111 0.000877
-0.0249 -0.1761 0.3431 -0.8647 -0.2352 -0.4438 201 158 132 0.000992
-0.0238 -0.1769 0.3414 -0.8773 -0.1843 -0.4432 202 159 133 0.000943
-0.0226 -0.1830 0.3414 -0.8920 -0.1472 -0.4274 219 174 146 0.000969
-0.0227 -0.1853 0.3429 -0.9201 -0.1559 -0.3593 209 165 139 0.000990
-0.0231 -0.1866 0.3443 -0.9364 -0.1395 -0.3219 192 150 125 0.001004
-0.0226 -0.1887 0.3441 -0.9586 -0.1096 -0.2628 195 153 127 0.000958
-0.0210 -0.1866 0.3391 -0.8988 -0.0822 -0.4305 210 165 138 0.000936
-0.0201 -0.1861 0.3374 -0.8623 -0.0745 -0.5010 211 167 139 0.000905
-0.0189 -0.1859 0.3357 -0.8001 -0.0625 -0.5965 205 162 134 0.000868
-0.0176 -0.1853 0.3343 -0.7472 -0.0303 -0.6640 201 158 131 0.000858
-0.0168 -0.1866 0.3339 -0.7410 0.0225 -0.6711 198 155 128 0.000834
-0.0160 -0.1851 0.3329 -0.7191 -0.0092 -0.6949 190 148 122 0.000841
-0.0150 -0.1849 0.3321 -0.6699 -0.0155 -0.7423 198 155 127 0.000886
-0.0145 -0.1841 0.3315 -0.7048 0.0283 -0.7088 186 144 118 0.000838
-0.0134 -0.1844 0.3306 -0.6830 0.0775 -0.7263 184 143 118 0.000810
-0.0127 -0.1839 0.3301 -0.6592 0.0605 -0.7496 187 146 120 0.000823
-0.0115 -0.1839 0.3293 -0.7207 0.1395 -0.6791 182 142 116 0.000795
-0.0102 -0.1837 0.3281 -0.7577 0.1905 -0.6241 165 128 104 0.000789
-0.0094 -0.1835 0.3274 -0.7368 0.2059 -0.6440 176 137 113 0.000782
-0.0086 -0.1828 0.3266 -0.8152 0.1820 -0.5499 155 119 97 0.000793
-0.0079 -0.1827 0.3259 -0.7773 0.2271 -0.5867 170 132 108 0.000781
-0.0069 -0.1827 0.3251 -0.7504 0.2070 -0.6277 176 138 115 0.000795
-0.0045 -0.1812 0.3224 -0.7491 0.2881 -0.5965 183 145 121 0.000782
-0.0038 -0.1815 0.3211 -0.8010 0.3688 -0.4715 144 115 98 0.000786
-0.0022 -0.1805 0.3196 -0.7713 0.4039 -0.4918 146 118 102 0.000783
-0.0007 -0.1797 0.3184 -0.7847 0.3772 -0.4919 139 114 100 0.000779
0.0029 -0.1775 0.3144 -0.6969 0.3807 -0.6078 64 56 57 0.000777
0.0038 -0.1776 0.3132 -0.6421 0.3468 -0.6837 30 29 34 0.000771
0.0063 -0.1777 0.3114 -0.5426 0.2610 -0.7984 23 25 29 0.000774
0.0080 -0.1770 0.3104 -0.5480 0.2561 -0.7963 21 22 27 0.000776
0.0091 -0.1773 0.3100 -0.4631 0.2029 -0.8628 16 18 22 0.000797
0.0117 -0.1773 0.3088 -0.3773 0.1939 -0.9056 22 23 27 0.000810
0.0124 -0.1770 0.3086 -0.3782 0.2194 -0.8993 20 22 26 0.000804
0.0138 -0.1770 0.3080 -0.3588 0.2194 -0.9073 20 21 24 0.000801
0.0154 -0.1770 0.3076 -0.3287 0.2286 -0.9163 21 23 26 0.000801
0.0164 -0.1774 0.3072 -0.3577 0.2569 -0.8978 19 20 24 0.000799
0.0173 -0.1773 0.3069 -0.3383 0.2598 -0.9045 19 19 23 0.000797
0.0184 -0.1776 0.3064 -0.3418 0.3011 -0.8902 18 19 23 0.000790
0.0192 -0.1766 0.3064 -0.3418 0.2999 -0.8906 22 24 27 0.000785
0.0208 -0.1770 0.3058 -0.3287 0.3494 -0.8774 23 24 28 0.000784
0.0219 -0.1766 0.3055 -0.3145 0.3534 -0.8810 28 29 33 0.000788
0.0241 -0.1765 0.3049 -0.3155 0.4491 -0.8359 20 20 24 0.000792
0.0254 -0.1768 0.3044 -0.3225 0.4784 -0.8168 19 20 24 0.000777
0.0284 -0.1763 0.3035 -0.4526 0.5557 -0.6974 14 14 18 0.000774
0.0297 -0.1763 0.3026 -0.4837 0.5962 -0.6408 15 15 19 0.000772
0.0309 -0.1755 0.3023 -0.4981 0.6016 -0.6245 14 14 18 0.000775
0.0323 -0.1756 0.3010 -0.5354 0.6402 -0.5510 15 15 19 0.000772
0.0336 -0.1752 0.3002 -0.5693 0.6500 -0.5035 28 29 32 0.000774
0.0342 -0.1753 0.2992 -0.5722 0.6736 -0.4678 26 27 29 0.000778
0.0355 -0.1750 0.2982 -0.5979 0.6848 -0.4166 24 24 28 0.000780
0.0359 -0.1748 0.2976 -0.6056 0.6678 -0.4328 20 20 24 0.000794
0.0367 -0.1743 0.2973 -0.5835 0.7033 -0.4061 17 18 22 0.000809
0.0378 -0.1740 0.2963 -0.5803 0.7088 -0.4011 17 18 22 0.000815
0.0391 -0.1735 0.2950 -0.5805 0.7035 -0.4101 18 18 22 0.000815
0.0398 -0.1736 0.2937 -0.5370 0.7166 -0.4451 15 15 19 0.000805
0.0410 -0.1732 0.2929 -0.5054 0.7080 -0.4933 22 22 25 0.000785
0.0422 -0.1734 0.2916 -0.4571 0.6883 -0.5633 23 23 26 0.000772
0.0436 -0.1731 0.2910 -0.4435 0.6799 -0.5840 19 18 22 0.000779
0.0446 -0.1726 0.2908 -0.4547 0.6631 -0.5947 16 15 19 0.000789
0.0456 -0.1728 0.2902 -0.4214 0.6709 -0.6101 14 13 17 0.000789
0.0469 -0.1727 0.2898 -0.5296 0.6238 -0.5748 19 21 24 0.000789
0.0477 -0.1720 0.2894 -0.4596 0.6881 -0.5615 38 37 39 0.000802
0.0485 -0.1723 0.2887 -0.4601 0.6715 -0.5809 30 31 34 0.000798
0.0495 -0.1719 0.2884 -0.4420 0.6775 -0.5879 28 29 32 0.000790
0.0505 -0.1719 0.2875 -0.4468 0.6911 -0.5681 29 29 32 0.000788
0.0517 -0.1718 0.2872 -0.4871 0.7025 -0.5188 32 33 36 0.000785
0.0527 -0.1716 0.2865 -0.4655 0.7040 -0.5363 29 30 32 0.000784
0.0534 -0.1718 0.2861 -0.4742 0.7337 -0.4866 31 33 36 0.000793
0.0541 -0.1715 0.2854 -0.4677 0.7231 -0.5083 26 27 30 0.000782
0.0553 -0.1713 0.2846 -0.5053 0.7070 -0.4948 26 27 30 0.000787
0.0572 -0.1709 0.2837 -0.4925 0.7302 -0.4735 36 39 41 0.000780
0.0584 -0.1712 0.2823 -0.5033 0.7404 -0.4456 31 33 36 0.000830
0.0586 -0.1705 0.2826 -0.5315 0.7189 -0.4480 26 27 29 0.000790
0.0598 -0.1702 0.2816 -0.5509 0.7069 -0.4435 24 24 26 0.000818
0.0611 -0.1700 0.2806 -0.5278 0.7263 -0.4403 29 30 33 0.000821
0.0624 -0.1696 0.2797 -0.5293 0.7340 -0.4256 25 25 27 0.000819
0.0633 -0.1695 0.2785 -0.5187 0.7411 -0.4263 21 21 24 0.000821
0.0642 -0.1693 0.2780 -0.4791 0.7519 -0.4530 21 21 24 0.000822
0.0654 -0.1691 0.2772 -0.4733 0.7608 -0.4441 22 22 25 0.000799
0.0667 -0.1688 0.2763 -0.4581 0.7556 -0.4681 24 24 26 0.000793
0.0679 -0.1688 0.2754 -0.4210 0.7761 -0.4696 27 27 30 0.000790
0.0694 -0.1688 0.2747 -0.4339 0.7617 -0.4813 25 24 26 0.000805
0.0698 -0.1686 0.2745 -0.4022 0.8000 -0.4452 25 24 26 0.000818
0.0715 -0.1685 0.2741 -0.3272 0.8018 -0.5001 22 22 24 0.000848
0.0728 -0.1685 0.2732 -0.3695 0.7959 -0.4796 20 19 21 0.000840
0.0746 -0.1683 0.2730 -0.3286 0.8248 -0.4602 24 23 25 0.000854
0.0761 -0.1679 0.2728 -0.3457 0.8078 -0.4774 30 29 30 0.000850
0.0771 -0.1681 0.2718 -0.3073 0.7819 -0.5424 28 28 30 0.000836
0.0780 -0.1683 0.2709 -0.3674 0.7974 -0.4787 30 30 31 0.000829
0.0790 -0.1676 0.2712 -0.3704 0.7873 -0.4930 28 27 29 0.000842
0.0797 -0.1684 0.2701 -0.4157 0.7321 -0.5397 34 34 34 0.000839
0.0807 -0.1679 0.2699 -0.3308 0.7899 -0.5165 29 29 31 0.000805
0.0825 -0.1680 0.2698 -0.3018 0.8095 -0.5036 37 38 39 0.000864
0.0831 -0.1680 0.2686 -0.2446 0.8247 -0.5099 36 37 39 0.000889
0.0854 -0.1676 0.2681 -0.3774 0.7843 -0.4925 30 29 30 0.000870
0.0875 -0.1673 0.2677 -0.5042 0.7504 -0.4274 37 36 36 0.000929
-0.1034 -0.2532 0.5250 -0.6648 0.5985 -0.4471 56 62 67 0.001084
-0.1037 -0.2540 0.5226 -0.6613 0.6068 -0.4411 64 70 75 0.001184
-0.1048 -0.2563 0.5194 -0.6233 0.6264 -0.4681 48 53 58 0.001072
-0.1019 -0.2527 0.5220 -0.7049 0.5778 -0.4113 43 47 53 0.001162
-0.1309 -0.0025 0.3734 -0.9777 0.0570 -0.2020 225 177 150 0.000559
-0.1304 -0.0035 0.3714 -0.9645 0.0660 -0.2559 210 166 146 0.000567
-0.1306 -0.0054 0.3710 -0.9550 0.0787 -0.2861 165 126 113 0.000556
-0.1305 -0.0091 0.3702 -0.9486 -0.0266 -0.3153 126 101 94 0.000556
-0.1306 -0.0119 0.3709 -0.9234 -0.1672 -0.3456 125 94 81 0.000565
-0.0945 -0.2417 0.5483 -0.8684 0.3848 -0.3127 54 59 64 0.001388
-0.0958 -0.2428 0.5458 -0.8634 0.3388 -0.3738 62 65 70 0.001198
-0.1315 0.0138 0.3677 -0.9500 -0.2242 -0.2171 206 158 129 0.000561
-0.1308 0.0124 0.3662 -0.9529 -0.1913 -0.2352 215 167 138 0.000559
-0.1314 0.0126 0.3691 -0.9588 -0.2037 -0.1982 224 176 147 0.000561
-0.1308 0.0107 0.3683 -0.9608 -0.1693 -0.2196 216 170 142 0.000560
-0.1310 0.0086 0.3703 -0.9687 -0.1492 -0.1983 216 167 138 0.000557
-0.1306 0.0082 0.3689 -0.9660 -0.1548 -0.2069 220 172 143 0.000559
-0.1285 -0.0181 0.3736 -0.7599 -0.5716 -0.3096 156 112 84 0.000627
-0.1323 0.0292 0.3592 -0.9718 -0.0108 -0.2354 226 175 145 0.000555
-0.1321 0.0285 0.3586 -0.9714 -0.0583 -0.2302 235 184 155 0.000555
-0.1301 0.0066 0.3674 -0.9607 -0.1405 -0.2396 219 171 142 0.000558
-0.1293 0.0058 0.3651 -0.9538 -0.1486 -0.2611 224 178 150 0.000559
-0.1296 0.0046 0.3671 -0.9604 -0.1257 -0.2486 227 179 151 0.000561
-0.1291 0.0027 0.3659 -0.9609 -0.0837 -0.2641 219 172 144 0.000558
-0.1293 -0.0064 0.3662 -0.9404 0.0290 -0.3389 148 115 101 0.000557
-0.1302 -0.0597 0.3352 -0.7616 -0.0097 -0.6479 214 160 124 0.000547
-0.1313 0.0304 0.3552 -0.9580 -0.0117 -0.2865 233 183 154 0.000559
-0.1315 0.0290 0.3560 -0.9589 -0.0389 -0.2810 226 177 148 0.000557
-0.1291 0.0044 0.3654 -0.9549 -0.1314 -0.2664 224 176 147 0.000561
-0.1287 0.0057 0.3631 -0.9506 -0.1552 -0.2688 223 177 148 0.000558
-0.1239 -0.0241 0.3818 -0.5385 -0.6867 -0.4884 106 82 67 0.000703
-0.1292 -0.0522 0.3380 -0.7901 0.4621 -0.4027 226 169 133 0.000567
-0.1291 0.0146 0.3571 -0.9265 -0.2544 -0.2772 213 162 134 0.000558
-0.1286 0.0127 0.3575 -0.9307 -0.2415 -0.2747 219 159 139 0.000564
-0.1277 -0.0057 0.3625 -0.9277 -0.0117 -0.3730 219 174 147 0.000559
-0.1272 -0.0072 0.3612 -0.9193 -0.0406 -0.3915 213 169 142 0.000560
-0.1284 -0.0516 0.3373 -0.7422 0.4755 -0.4722 226 170 134 0.000580
-0.1283 -0.0520 0.3367 -0.7011 0.4622 -0.5430 220 161 125 0.000590
-0.1300 0.0417 0.3539 -0.9545 0.1862 -0.2328 236 183 148 0.000597
-0.1300 0.0403 0.3530 -0.9532 0.1607 -0.2562 234 182 148 0.000587
-0.1280 0.0116 0.3564 -0.9231 -0.2355 -0.3040 249 133 165 0.000567
-0.1289 0.0436 0.3514 -0.9326 0.2392 -0.2702 234 180 145 0.000623
-0.1293 0.0416 0.3511 -0.9424 0.1843 -0.2791 232 179 145 0.000594
-0.1196 -0.0285 0.3856 -0.7290 -0.6252 -0.2788 80 78 82 0.000693
-0.1252 -0.0471 0.3377 -0.6195 0.5419 -0.5679 216 159 123 0.000624
-0.1191 -0.0224 0.3750 -0.5237 -0.5102 -0.6822 99 71 55 0.000679
-0.1189 -0.0235 0.3763 -0.5450 -0.5894 -0.5963 97 72 57 0.000690
-0.1190 -0.0285 0.3840 -0.7313 -0.5748 -0.3670 53 50 55 0.000676
-0.1264 0.0315 0.3422 -0.9024 -0.0411 -0.4289 225 177 148 0.000561
-0.1165 -0.0292 0.3812 -0.7046 -0.4876 -0.5156 26 25 27 0.000673
-0.1160 -0.0255 0.3769 -0.5438 -0.5747 -0.6115 50 43 43 0.000785
-0.1160 -0.0265 0.3777 -0.5697 -0.5874 -0.5748 47 46 50 0.000718
-0.1157 -0.0291 0.3801 -0.6966 -0.4517 -0.5574 30 26 29 0.000637
-0.1218 -0.0417 0.3393 -0.5610 0.5646 -0.6053 213 157 121 0.000641
-0.1242 0.0189 0.3426 -0.8624 -0.2308 -0.4505 210 161 135 0.000564
-0.1233 0.0140 0.3432 -0.8713 -0.2415 -0.4273 251 89 166 0.000567
-0.1232 0.0129 0.3436 -0.8747 -0.2437 -0.4189 242 123 153 0.000563
-0.1221 0.0562 0.3478 -0.7898 0.5099 -0.3409 221 167 132 0.000802
-0.1193 0.0011 0.3400 -0.9164 -0.1200 -0.3819 209 161 133 0.000568
-0.1195 -0.0003 0.3408 -0.9178 -0.1329 -0.3741 219 173 146 0.000568
-0.1196 -0.0032 0.3426 -0.9159 -0.1574 -0.3692 215 170 142 0.000574
-0.1196 0.0048 0.3394 -0.9068 -0.1109 -0.4068 213 166 138 0.000568
-0.1156 -0.0297 0.3444 -0.6569 0.5463 -0.5197 225 169 133 0.000670
-0.1152 -0.0768 0.3325 -0.6400 0.4643 -0.6122 202 143 109 0.000605
-0.1204 0.0574 0.3461 -0.7533 0.5527 -0.3565 222 170 134 0.000841
-0.1139 -0.0268 0.3451 -0.6942 0.4537 -0.5588 223 168 132 0.000638
-0.1139 -0.0282 0.3440 -0.6162 0.4925 -0.6146 217 161 125 0.000668
-0.0666 -0.2228 0.5476 -0.6817 0.5826 -0.4425 43 46 48 0.001130
-0.1183 0.0581 0.3429 -0.7297 0.5574 -0.3960 217 165 130 0.000817
-0.1133 -0.0748 0.3325 -0.5586 0.4703 -0.6832 193 138 106 0.000634
-0.0664 -0.2235 0.5469 -0.7884 0.5422 -0.2908 46 48 50 0.001216
-0.0739 -0.2306 0.5048 -0.6784 0.6777 -0.2837 29 33 38 0.001111
-0.0697 -0.2249 0.5122 -0.6292 0.7092 -0.3181 38 41 46 0.001049
-0.0706 -0.2265 0.5085 -0.6209 0.7303 -0.2848 48 53 58 0.001093
-0.1061 -0.1244 0.3462 -0.8676 -0.3670 -0.3354 174 126 97 0.000754
-0.1150 0.0642 0.3471 -0.7235 0.5649 -0.3967 208 160 126 0.000779
-0.1143 -0.0040 0.3299 -0.9028 -0.1346 -0.4084 106 81 74 0.000567
-0.1122 -0.0585 0.3291 -0.1661 -0.2237 -0.9604 165 114 81 0.000674
-0.1109 -0.0821 0.3279 -0.5997 -0.2001 -0.7748 193 131 105 0.000661
-0.1127 -0.0015 0.3261 -0.8941 -0.0510 -0.4450 118 92 88 0.000574
-0.1113 -0.0125 0.3300 -0.7618 -0.4915 -0.4219 165 120 91 0.000641
-0.1087 -0.0321 0.3399 -0.1481 0.3546 -0.9232 160 110 81 0.000700
-0.1088 -0.0752 0.3292 -0.4704 0.4692 -0.7473 191 137 107 0.000699
-0.1086 -0.0848 0.3272 -0.6214 -0.4207 -0.6610 165 94 77 0.000750
-0.1069 -0.0191 0.3386 -0.2501 -0.5841 -0.7722 129 81 56 0.000750
-0.1055 -0.0938 0.3275 -0.6049 0.1550 -0.7811 195 130 107 0.000638
-0.0615 -0.2207 0.5090 -0.5391 0.7417 -0.3991 31 35 38 0.001068
-0.1127 0.0434 0.3250 -0.6768 0.2347 -0.6978 215 164 132 0.000658
-0.1127 0.0320 0.3230 -0.7184 0.0423 -0.6943 214 166 135 0.000612
-0.1120 0.0270 0.3223 -0.7315 -0.0252 -0.6814 216 169 140 0.000609
-0.1099 0.0619 0.3361 -0.6232 0.6123 -0.4866 208 158 125 0.000857
-0.1094 0.0628 0.3367 -0.5824 0.6448 -0.4950 211 163 130 0.000998
-0.1098 0.0193 0.3204 -0.7568 -0.0290 -0.6530 216 171 142 0.000607
-0.1088 0.0056 0.3193 -0.8303 0.0563 -0.5544 215 170 142 0.000595
-0.1082 0.0592 0.3307 -0.5718 0.5944 -0.5654 209 159 124 0.000923
-0.0620 -0.2293 0.4635 -0.7270 0.6310 -0.2709 42 47 53 0.001046
-0.1073 0.0078 0.3175 -0.8011 0.0451 -0.5968 222 174 145 0.000596
-0.1058 0.0606 0.3300 -0.5512 0.6140 -0.5650 208 158 124 0.000988
-0.1063 0.0099 0.3163 -0.7661 0.0404 -0.6414 220 173 144 0.000609
-0.0574 -0.2228 0.4768 -0.6787 0.7102 -0.1872 37 42 47 0.001064
-0.0601 -0.2282 0.4607 -0.7125 0.6489 -0.2670 38 44 50 0.001147
-0.0990 -0.0891 0.3219 -0.6566 -0.3496 -0.6683 168 105 86 0.000768
-0.0559 -0.2220 0.4748 -0.6422 0.7371 -0.2103 34 38 44 0.001059
-0.1048 0.0589 0.3273 -0.5305 0.5989 -0.5999 207 158 123 0.000955
-0.0540 -0.2212 0.4726 -0.6715 0.7144 -0.1968 30 34 39 0.001083
-0.0972 -0.0511 0.3296 -0.7379 0.0758 -0.6706 191 141 113 0.000628
-0.1038 0.0276 0.3147 -0.6236 0.0611 -0.7793 210 163 132 0.000630
-0.0948 -0.0277 0.3362 -0.8051 0.0224 -0.5927 173 129 107 0.000621
-0.0956 -0.0910 0.3186 -0.8220 -0.2068 -0.5306 202 132 113 0.000684
-0.1016 0.0052 0.3102 -0.7197 0.2049 -0.6633 184 142 120 0.000622
-0.1007 -0.0062 0.3076 -0.7416 -0.2017 -0.6398 191 147 117 0.000612
-0.0935 -0.0403 0.3266 -0.8801 0.2568 -0.3994 205 155 125 0.000607
-0.0937 -0.0598 0.3237 -0.8337 0.1014 -0.5428 194 141 116 0.000616
-0.0929 -0.0662 0.3204 -0.7342 0.2654 -0.6249 205 150 122 0.000631
-0.0993 0.0105 0.3093 -0.6176 0.1821 -0.7651 216 167 135 0.000636
-0.0998 0.0061 0.3086 -0.6806 0.2173 -0.6997 202 157 129 0.000631
-0.0991 0.0031 0.3069 -0.6552 0.2599 -0.7093 126 93 81 0.000637
-0.0921 -0.0569 0.3212 -0.8478 0.0023 -0.5304 198 146 119 0.000625
-0.0467 -0.2160 0.4596 -0.6559 0.6904 -0.3053 29 34 38 0.001031
-0.0918 -0.0469 0.3208 -0.8737 0.0287 -0.4855 205 155 126 0.000609
-0.0918 -0.0699 0.3176 -0.6916 0.2596 -0.6740 206 151 123 0.000636
-0.0354 -0.2068 0.4996 -0.7614 0.5443 -0.3521 35 37 40 0.001149
-0.0505 -0.2215 0.4368 -0.7596 0.6391 -0.1202 51 57 62 0.001117
-0.0975 0.0145 0.3089 -0.5489 0.1423 -0.8237 213 164 133 0.000646
-0.0908 -0.0281 0.3216 -0.9675 -0.0586 -0.2459 142 101 77 0.000603
-0.0894 -0.0692 0.3154 -0.6889 0.2297 -0.6875 208 154 126 0.000637
-0.0890 -0.0339 0.3176 -0.9287 -0.0829 -0.3614 199 151 126 0.000614
-0.0887 -0.0467 0.3155 -0.8510 -0.0417 -0.5235 209 157 128 0.000630
-0.0881 -0.0732 0.3128 -0.6273 0.1903 -0.7552 207 152 124 0.000644
-0.0421 -0.2133 0.4510 -0.6672 0.7393 -0.0909 26 30 35 0.001124
-0.0426 -0.2140 0.4481 -0.6949 0.6902 -0.2019 29 33 38 0.001070
-0.0484 -0.2192 0.4228 -0.8382 0.5186 -0.1690 39 43 50 0.001232
-0.0877 -0.0361 0.3145 -0.9138 0.0561 -0.4023 224 175 146 0.000613
-0.0864 -0.0505 0.3123 -0.8053 -0.0992 -0.5845 209 156 128 0.000636
-0.0406 -0.2116 0.4377 -0.7964 0.5898 -0.1340 38 42 47 0.001113
-0.0869 -0.0274 0.3116 -0.8115 -0.0478 -0.5824 185 133 104 0.000630
-0.0416 -0.2119 0.4302 -0.7460 0.6654 -0.0258 33 37 43 0.001185
-0.0406 -0.2112 0.4284 -0.7942 0.6014 -0.0863 35 40 45 0.001179
-0.0832 -0.0585 0.3100 -0.7124 -0.0606 -0.6991 200 145 119 0.000659
-0.0834 -0.0612 0.3102 -0.6943 -0.0112 -0.7196 198 143 117 0.000660
-0.0887 -0.0067 0.2986 -0.3666 -0.1111 -0.9237 183 136 105 0.000632
-0.0820 -0.0808 0.3083 -0.3808 0.0340 -0.9240 183 130 102 0.000671
-0.0331 -0.2053 0.4457 -0.7238 0.6438 -0.2483 42 46 51 0.001097
-0.0822 -0.0549 0.3084 -0.7018 -0.1357 -0.6994 192 138 112 0.000664
-0.0395 -0.2077 0.4185 -0.8286 0.5512 -0.0982 33 37 44 0.001050
-0.0872 0.0281 0.3052 -0.3534 0.1088 -0.9291 199 150 118 0.000654
-0.0252 -0.1972 0.4620 -0.7752 0.6028 -0.1890 44 49 54 0.001049
-0.0349 -0.2026 0.4131 -0.7510 0.6063 -0.2614 44 48 54 0.000944
-0.0311 -0.2002 0.4247 -0.8260 0.5165 -0.2259 43 48 53 0.001056
-0.0767 -0.0537 0.3035 -0.5437 -0.1862 -0.8183 192 138 111 0.000690
-0.0319 -0.1997 0.4117 -0.8987 0.3665 -0.2409 59 39 32 0.000939
-0.0315 -0.2010 0.4085 -0.8209 0.4959 -0.2831 48 29 22 0.001120
-0.0315 -0.2016 0.4069 -0.8272 0.4669 -0.3126 62 37 26 0.000890
-0.0429 -0.1564 0.3720 -0.9443 -0.2558 -0.2071 176 136 113 0.000929
-0.0421 -0.1605 0.3742 -0.9539 -0.2435 -0.1756 179 137 113 0.000893
-0.0417 -0.1621 0.3750 -0.9621 -0.2174 -0.1648 176 134 111 0.000838
-0.0406 -0.1665 0.3745 -0.9410 -0.2230 -0.2546 197 154 129 0.000879
-0.0401 -0.1697 0.3755 -0.9372 -0.2396 -0.2533 202 157 132 0.000921
-0.0396 -0.1722 0.3773 -0.9488 -0.2355 -0.2105 212 167 141 0.000997
-0.0398 -0.1732 0.3785 -0.9577 -0.2152 -0.1911 186 143 119 0.000951
-0.0389 -0.1737 0.3754 -0.9519 -0.2021 -0.2305 212 168 142 0.001017
-0.0344 -0.1869 0.3720 -0.9257 -0.2048 -0.3180 197 155 130 0.000998
-0.0341 -0.1891 0.3728 -0.9284 -0.1747 -0.3281 216 172 145 0.000998
-0.0342 -0.1948 0.3745 -0.9279 0.0002 -0.3727 228 184 155 0.000986
-0.0690 -0.0526 0.2993 -0.2977 -0.2164 -0.9298 171 119 94 0.000704
-0.0371 -0.1719 0.3673 -0.9276 -0.2553 -0.2729 199 156 131 0.000958
-0.0345 -0.1830 0.3694 -0.9149 -0.2468 -0.3195 194 153 128 0.001017
-0.0395 -0.1540 0.3596 -0.8986 -0.2582 -0.3548 210 167 141 0.001068
-0.0363 -0.1689 0.3618 -0.9086 -0.2572 -0.3291 199 156 130 0.000967
-0.0383 -0.1514 0.3552 -0.8694 -0.2765 -0.4095 217 173 146 0.001059
-0.0366 -0.1566 0.3548 -0.8704 -0.2535 -0.4222 206 163 137 0.000974
-0.0313 -0.1725 0.3532 -0.8573 -0.2768 -0.4340 190 148 123 0.000933
-0.0268 -0.1758 0.3467 -0.8602 -0.2968 -0.4147 197 154 129 0.001043
-0.0294 -0.1422 0.3384 -0.7019 -0.2161 -0.6787 186 144 117 0.000879
-0.0294 -0.1296 0.3342 -0.6262 -0.2221 -0.7473 168 128 102 0.000847
0.0053 -0.1780 0.3120 -0.6003 0.2847 -0.7474 21 21 26 0.000779
0.0403 -0.1674 0.3026 -0.4593 0.6087 -0.6469 17 16 18 0.000827
0.0426 -0.1685 0.2989 -0.5123 0.7116 -0.4807 28 29 31 0.000834
0.0775 -0.1619 0.2855 -0.2755 0.7690 -0.5768 32 31 32 0.000800
-0.0999 -0.2479 0.5309 -0.6103 0.6568 -0.4428 50 54 59 0.001081
-0.0982 -0.2463 0.5364 -0.7551 0.5557 -0.3480 60 64 70 0.001298
-0.1319 -0.0057 0.3782 -0.9829 0.0869 -0.1624 171 132 119 0.000572
-0.1314 -0.0081 0.3739 -0.9746 0.0225 -0.2229 145 117 108 0.000569
-0.1319 -0.0072 0.3760 -0.9801 0.0720 -0.1852 147 113 103 0.000566
-0.1313 -0.0103 0.3728 -0.9596 -0.0509 -0.2768 137 109 99 0.000558
-0.1330 0.0255 0.3647 -0.9839 -0.0878 -0.1555 233 182 153 0.000559
-0.1329 0.0237 0.3654 -0.9763 -0.1198 -0.1801 229 181 152 0.000557
-0.1325 0.0214 0.3653 -0.9730 -0.1469 -0.1779 232 183 153 0.000554
-0.1333 0.0223 0.3686 -0.9847 -0.1059 -0.1387 231 180 150 0.000558
-0.1328 0.0187 0.3697 -0.9752 -0.1682 -0.1440 226 177 148 0.000558
-0.1329 0.0208 0.3677 -0.9759 -0.1450 -0.1634 228 179 150 0.000556
-0.1320 0.0133 0.3712 -0.9667 -0.1883 -0.1736 214 165 136 0.000563
-0.1318 0.0119 0.3713 -0.9696 -0.1860 -0.1587 215 166 136 0.000559
-0.1315 0.0111 0.3711 -0.9640 -0.1833 -0.1924 216 167 137 0.000562
-0.1315 0.0102 0.3717 -0.9705 -0.1723 -0.1685 215 167 138 0.000558
-0.1317 0.0094 0.3742 -0.9793 -0.1464 -0.1395 216 168 139 0.000562
-0.1314 0.0083 0.3733 -0.9757 -0.1381 -0.1698 224 175 146 0.000559
-0.1315 0.0071 0.3750 -0.9835 -0.1053 -0.1474 225 176 147 0.000566
-0.1312 0.0063 0.3731 -0.9781 -0.1041 -0.1803 217 169 140 0.000559
-0.1302 -0.0021 0.3709 -0.9657 0.0265 -0.2582 223 178 152 0.000563
-0.1318 0.0198 0.3628 -0.9639 -0.1677 -0.2070 227 181 153 0.000580
-0.1321 0.0179 0.3664 -0.9620 -0.1961 -0.1899 224 177 148 0.000556
-0.1300 0.0006 0.3701 -0.9708 -0.0426 -0.2362 227 181 153 0.000566
-0.1311 0.0179 0.3616 -0.9487 -0.2101 -0.2363 227 181 152 0.000565
-0.1291 -0.0097 0.3658 -0.9294 -0.0712 -0.3621 106 82 77 0.000560
-0.0913 -0.2433 0.5108 -0.7346 0.5831 -0.3469 40 46 52 0.001131
-0.1310 0.0196 0.3597 -0.9475 -0.2045 -0.2460 225 178 149 0.000554
-0.1305 0.0449 0.3606 -0.9539 0.2621 -0.1465 230 175 139 0.000636
-0.1304 0.0439 0.3589 -0.9605 0.2230 -0.1666 238 184 148 0.000635
-0.1308 0.0418 0.3581 -0.9631 0.2062 -0.1730 233 178 143 0.000610
-0.1307 0.0405 0.3564 -0.9647 0.1712 -0.2000 235 182 148 0.000600
-0.1299 0.0465 0.3601 -0.9409 0.3044 -0.1487 231 176 139 0.000644
-0.1297 0.0454 0.3572 -0.9398 0.2835 -0.1909 234 178 142 0.000641
-0.1302 0.0430 0.3560 -0.9524 0.2239 -0.2066 231 178 144 0.000620
-0.1279 0.0098 0.3573 -0.9251 -0.2318 -0.3009 220 153 136 0.000562
-0.1286 0.0497 0.3592 -0.9092 0.3834 -0.1623 230 175 139 0.000680
-0.1288 0.0481 0.3569 -0.9175 0.3370 -0.2112 229 175 139 0.000659
-0.1293 0.0455 0.3549 -0.9309 0.2887 -0.2239 233 178 143 0.000638
-0.1288 0.0241 0.3502 -0.9225 -0.1739 -0.3447 235 169 157 0.000561
-0.1268 -0.0493 0.3373 -0.6662 0.5205 -0.5341 221 165 129 0.000610
-0.1281 0.0497 0.3564 -0.9035 0.3732 -0.2108 231 176 140 0.000681
-0.1275 0.0232 0.3463 -0.9015 -0.1973 -0.3852 248 119 164 0.000557
-0.1247 -0.0003 0.3539 -0.9234 -0.1169 -0.3655 217 170 142 0.000560
-0.1236 -0.0133 0.3561 -0.8370 -0.3164 -0.4465 193 145 114 0.000593
-0.0837 -0.2393 0.5022 -0.6295 0.7102 -0.3152 41 46 51 0.001146
-0.1238 -0.0014 0.3520 -0.9193 -0.1073 -0.3787 218 172 144 0.000566
-0.1237 -0.0054 0.3528 -0.9057 -0.1357 -0.4017 215 168 139 0.000566
-0.1177 -0.0222 0.3739 -0.4642 -0.4393 -0.7691 91 62 46 0.000722
-0.1259 0.0540 0.3560 -0.8611 0.4526 -0.2315 226 172 136 0.000731
-0.1239 0.0075 0.3487 -0.9120 -0.1947 -0.3611 209 164 136 0.000561
-0.1176 -0.0235 0.3751 -0.5431 -0.5453 -0.6385 92 65 49 0.000665
-0.1166 -0.0247 0.3760 -0.5230 -0.5971 -0.6083 58 43 37 0.000725
-0.1261 0.0391 0.3420 -0.8935 0.1303 -0.4297 230 178 146 0.000579
-0.1221 -0.0036 0.3487 -0.9115 -0.1333 -0.3892 210 164 136 0.000566
-0.1220 -0.0062 0.3494 -0.9019 -0.1704 -0.3969 208 161 132 0.000568
-0.1224 -0.0065 0.3505 -0.8963 -0.1727 -0.4085 202 153 123 0.000567
-0.1163 -0.0236 0.3747 -0.5033 -0.5287 -0.6835 89 64 50 0.000743
-0.1154 -0.0249 0.3754 -0.4927 -0.5754 -0.6528 69 55 51 0.000715
-0.1147 -0.0262 0.3763 -0.5109 -0.5703 -0.6432 87 80 81 0.000754
-0.1140 -0.0276 0.3772 -0.5811 -0.4906 -0.6493 59 51 53 0.000704
-0.1144 -0.0289 0.3785 -0.6461 -0.4281 -0.6319 36 24 25 0.000636
-0.1142 -0.0302 0.3792 -0.7272 -0.3359 -0.5986 33 19 19 0.000618
-0.1230 0.0098 0.3452 -0.8919 -0.2161 -0.3972 210 165 137 0.000572
-0.1142 -0.0249 0.3746 -0.5193 -0.5527 -0.6518 84 70 67 0.000763
-0.1129 -0.0265 0.3756 -0.5759 -0.5275 -0.6246 140 129 130 0.000686
-0.1122 -0.0280 0.3763 -0.6116 -0.4080 -0.6778 146 135 135 0.000685
-0.1125 -0.0290 0.3771 -0.6354 -0.3360 -0.6953 100 87 86 0.000662
-0.1125 -0.0303 0.3776 -0.7151 -0.2396 -0.6566 77 62 58 0.000653
-0.1194 -0.0816 0.3361 -0.9022 0.2064 -0.3786 221 163 129 0.000547
-0.1203 -0.0049 0.3449 -0.9146 -0.1676 -0.3681 204 158 129 0.000566
-0.1213 -0.0579 0.3306 -0.2465 -0.0825 -0.9656 175 124 91 0.000685
-0.0721 -0.2232 0.5339 -0.6244 0.6943 -0.3577 32 35 38 0.001086
-0.1216 0.0130 0.3405 -0.8717 -0.2286 -0.4335 205 150 127 0.000570
-0.1194 -0.0493 0.3332 -0.2281 0.4420 -0.8675 181 129 96 0.000683
-0.1194 -0.0579 0.3303 -0.1968 -0.1935 -0.9612 183 132 99 0.000723
-0.1228 0.0341 0.3357 -0.8414 0.0024 -0.5405 223 175 145 0.000578
-0.1227 0.0280 0.3361 -0.8482 -0.1163 -0.5167 220 173 144 0.000575
-0.1157 -0.0217 0.3522 -0.8612 -0.3662 -0.3526 186 138 110 0.000621
-0.1153 -0.0221 0.3514 -0.8926 -0.2656 -0.3642 201 153 124 0.000588
-0.1180 -0.0042 0.3385 -0.9179 -0.1508 -0.3670 213 167 139 0.000565
-0.1147 -0.0224 0.3503 -0.9174 -0.1822 -0.3538 206 157 128 0.000583
-0.1140 -0.0728 0.3344 -0.6327 0.3878 -0.6703 198 142 110 0.000609
-0.0660 -0.2218 0.5242 -0.6685 0.5048 -0.5461 33 36 39 0.001024
-0.1182 0.0629 0.3514 -0.7787 0.5041 -0.3735 211 162 128 0.000748
-0.1075 -0.1126 0.3518 -0.9666 0.1365 -0.2167 221 168 140 0.000581
-0.1167 0.0642 0.3511 -0.7522 0.5425 -0.3740 208 159 125 0.000742
-0.1144 -0.0165 0.3412 -0.7237 -0.5760 -0.3801 179 130 99 0.000683
-0.1071 -0.1107 0.3512 -0.9671 0.0346 -0.2519 214 160 133 0.000582
-0.1188 0.0483 0.3338 -0.7710 0.3194 -0.5509 222 170 135 0.000675
-0.1118 -0.0705 0.3340 -0.5195 0.3467 -0.7810 187 134 103 0.000625
-0.1100 -0.0962 0.3309 -0.7281 0.0385 -0.6844 207 138 117 0.000620
-0.1100 -0.0998 0.3315 -0.6961 -0.1468 -0.7027 185 123 99 0.000648
-0.1057 -0.1092 0.3471 -0.9498 0.0100 -0.3128 212 160 134 0.000590
-0.0659 -0.2268 0.4935 -0.6576 0.7231 -0.2111 38 43 48 0.001172
-0.1100 -0.0269 0.3422 -0.4004 0.2978 -0.8666 180 128 97 0.000672
-0.1113 -0.0601 0.3297 -0.2109 -0.4387 -0.8735 153 101 70 0.000750
-0.1048 -0.1088 0.3445 -0.9475 0.0024 -0.3197 206 154 129 0.000599
-0.0637 -0.2246 0.4950 -0.6258 0.7533 -0.2023 40 44 49 0.001167
-0.1047 -0.1159 0.3392 -0.9023 0.2112 -0.3757 219 165 134 0.000576
-0.1159 0.0478 0.3300 -0.7095 0.3379 -0.6184 226 172 137 0.000718
-0.1134 0.0086 0.3267 -0.8546 -0.0781 -0.5135 218 171 142 0.000577
-0.1092 -0.0493 0.3320 0.0013 0.4643 -0.8857 164 112 81 0.000736
-0.1067 -0.1006 0.3298 -0.4941 -0.3500 -0.7958 161 107 81 0.000717
-0.0664 -0.2315 0.4756 -0.6881 0.7004 -0.1897 36 41 48 0.001242
-0.1144 0.0482 0.3285 -0.6781 0.3287 -0.6573 219 167 133 0.000712
-0.1074 -0.0254 0.3419 -0.3184 0.0418 -0.9470 162 113 85 0.000677
-0.1063 -0.1002 0.3290 -0.4713 -0.3794 -0.7962 157 101 77 0.000762
-0.1117 -0.0005 0.3240 -0.8812 -0.0142 -0.4726 131 102 95 0.000574
-0.1097 -0.0128 0.3278 -0.7499 -0.5049 -0.4275 160 115 87 0.000640
-0.1061 -0.0661 0.3315 -0.4805 -0.0614 -0.8749 177 126 99 0.000659
-0.1074 -0.0834 0.3253 -0.6418 -0.2031 -0.7395 185 124 99 0.000692
-0.1132 0.0417 0.3249 -0.6880 0.1878 -0.7010 218 168 135 0.000641
-0.1130 0.0389 0.3241 -0.6886 0.1286 -0.7137 221 172 140 0.000635
-0.1124 0.0255 0.3228 -0.7373 -0.0438 -0.6742 216 169 140 0.000601
-0.1036 -0.1023 0.3306 -0.5476 -0.5866 -0.5966 170 117 92 0.000887
-0.0487 -0.2138 0.5251 -0.6269 0.6105 -0.4841 39 39 42 0.001029
-0.1104 0.0006 0.3216 -0.8675 -0.0031 -0.4974 135 104 96 0.000578
-0.1040 -0.0689 0.3300 -0.5071 0.3483 -0.7884 191 138 108 0.000684
-0.1012 -0.1044 0.3318 -0.7998 -0.4349 -0.4138 186 133 106 0.000697
-0.0472 -0.2133 0.5244 -0.8321 0.3626 -0.4198 40 41 43 0.001084
-0.1102 0.0588 0.3325 -0.6206 0.5802 -0.5274 209 158 124 0.000859
-0.1114 0.0378 0.3225 -0.6800 0.1005 -0.7263 220 171 139 0.000635
-0.1028 -0.0905 0.3261 -0.6308 -0.2238 -0.7430 189 126 103 0.000692
-0.0456 -0.2136 0.5233 -0.6860 0.5024 -0.5263 42 44 47 0.001046
-0.1030 -0.0596 0.3292 -0.0055 0.0020 -1.0000 150 95 65 0.000699
-0.1085 0.0153 0.3190 -0.7596 -0.0169 -0.6502 217 170 141 0.000604
-0.1085 0.0138 0.3191 -0.7725 -0.0155 -0.6349 220 172 143 0.000602
-0.1085 0.0109 0.3191 -0.7932 -0.0035 -0.6090 219 171 142 0.000599
-0.1056 -0.0141 0.3231 -0.7328 -0.5090 -0.4516 130 88 64 0.000674
-0.1087 0.0309 0.3191 -0.6581 0.0697 -0.7497 215 167 136 0.000623
-0.1086 0.0246 0.3189 -0.6929 -0.0240 -0.7207 216 169 140 0.000609
-0.0492 -0.2153 0.4908 -0.6838 0.6828 -0.2571 36 40 45 0.001074
-0.1071 0.0120 0.3173 -0.7640 0.0190 -0.6449 218 170 141 0.000608
-0.1070 0.0105 0.3172 -0.7778 0.0222 -0.6281 220 172 143 0.000606
-0.1007 -0.0768 0.3224 -0.6005 0.3547 -0.7167 199 145 116 0.000639
-0.0483 -0.2152 0.4866 -0.6148 0.7481 -0.2500 31 35 39 0.001046
-0.1064 0.0374 0.3179 -0.6182 0.1356 -0.7742 216 167 135 0.000647
